35.876000 41.518000 0.685500 0.852502 0.501694 0.146781
36.236000 47.064000 -11.642800 0.825063 0.423450 -0.374113
21.484000 42.366000 -14.999100 0.572941 0.056162 -0.817670
13.818000 58.224000 -16.964000 -0.030746 0.852573 -0.521703
22.078000 37.668000 18.230000 0.543355 0.488161 0.682982
21.193000 50.568000 12.199000 0.258346 0.755243 0.602383
22.408000 26.994000 26.599000 0.685526 0.291750 0.667036
6.000000 36.832000 36.901000 -0.658950 0.371131 0.654253
15.111000 42.161000 28.708000 0.160995 0.790818 0.590497
28.111000 48.366000 4.077100 0.629028 0.727984 0.272696
20.154000 54.831000 2.852700 0.411579 0.849361 0.330437
14.000000 46.249000 5.326000 -0.999072 0.026501 -0.033940
11.999000 46.061000 -7.286000 -0.972552 0.219556 0.077053
17.074000 59.370000 -6.597200 -0.171383 0.981127 -0.089539
15.027000 28.362000 36.451000 0.273660 0.374669 0.885852
8.131000 30.503000 28.291000 -0.991407 0.121114 -0.049432
11.002000 32.934000 18.967000 -0.975545 0.183661 0.120750
8.004000 19.492000 32.785000 -0.981654 0.121996 0.146536
10.473000 15.675000 47.001000 -0.143452 0.477008 0.867113
6.863000 26.849000 13.168000 -0.719799 0.411937 0.558746
8.716000 25.128000 1.514500 0.551641 -0.813070 -0.186035
9.973000 34.863000 10.109000 -0.917752 0.352522 0.182922
5.049000 18.322000 15.606000 -0.644615 0.360099 0.674389
8.587000 13.252000 24.226000 -0.949431 0.206092 0.236867
6.015000 18.997000 7.017000 0.342941 -0.573941 -0.743628
15.360000 21.931000 8.042000 -0.463823 -0.590234 -0.660676
0.526000 21.000000 -0.274800 -0.093514 -0.995358 -0.022767
10.085000 9.883000 33.358000 -0.993616 0.035265 0.107163
19.383000 5.745000 39.925000 0.624907 0.210455 0.751798
8.091000 6.257000 42.873000 -0.995023 0.099190 -0.009518
5.625000 4.009000 26.612000 -0.879232 0.205137 0.429965
7.890000 -3.742000 43.737000 -0.995405 0.058098 -0.076119
6.149000 -10.880000 54.874000 -0.342042 0.277317 0.897832
18.046000 -4.729000 48.133000 0.643153 0.367775 0.671636
22.741000 -8.074000 36.943000 0.558867 0.352716 0.750506
16.086000 -13.876000 53.000000 0.289992 0.286489 0.913142
8.051000 -22.653000 54.107000 -0.519063 -0.313009 0.795361
10.020000 -8.950000 36.413000 -0.944658 -0.033188 -0.326372
13.655000 -19.628000 34.907000 -0.887324 -0.148413 -0.436611
33.001000 -1.606000 2.547000 0.948356 0.235089 -0.212963
32.310000 -8.122000 -3.117500 0.981578 0.161381 -0.102281
32.553000 -9.327000 4.861000 0.981230 -0.077594 -0.176543
2.947000 -3.683000 20.402000 -0.490074 0.030614 0.871143
5.228000 -3.639000 27.811000 -0.843724 -0.040196 0.535269
17.491000 -32.856100 -29.714900 0.393925 0.094470 0.914275
24.233000 -33.593800 -32.744900 0.718744 0.580418 0.382782
20.804000 -27.062000 -32.858400 0.922263 0.362341 0.134681
-18.764000 -18.005000 50.925000 -0.587288 -0.109801 0.801896
8.107000 35.673000 -9.323900 -0.871609 0.477656 -0.110194
8.064000 25.353000 -18.463800 -0.600653 -0.334020 -0.726393
14.633000 25.959000 -8.575100 -0.136077 -0.806554 0.575285
17.768000 25.816000 0.066100 -0.771798 -0.548380 -0.321880
20.780000 20.920000 -5.997800 -0.590066 -0.804986 -0.061806
21.619000 15.927000 -0.301100 0.483979 -0.147427 -0.862571
14.840000 13.075000 3.749100 -0.850183 0.438732 0.291039
18.944000 9.326000 -3.622900 0.570691 0.629080 -0.527798
26.193000 5.999000 -3.634000 0.645805 0.688392 -0.330230
14.514000 9.877000 -9.684800 0.131889 0.747710 -0.650796
10.245000 4.010000 -14.480900 -0.175328 0.500184 -0.847984
16.339000 18.253000 -14.166200 -0.330868 -0.943444 -0.020951
8.534000 10.017000 -5.521100 -0.692988 0.715597 -0.087691
26.407000 24.051000 -2.229800 0.980182 -0.142305 -0.137813
26.000000 25.924000 -10.564200 0.845712 -0.519710 -0.121134
23.082000 33.856000 -13.182500 0.528587 0.230103 -0.817098
15.926000 35.309000 -21.626700 0.336194 0.014481 -0.941681
29.764000 40.185000 -10.954400 0.302556 -0.101545 -0.947707
27.648000 31.086000 -5.096800 0.691152 -0.720080 0.061591
24.268000 15.793000 -11.947100 0.899353 -0.406169 0.161836
33.789000 32.940000 -1.136000 -0.072054 -0.847023 -0.526651
27.572000 22.596000 5.040000 0.597101 -0.173876 -0.783095
36.602000 23.964000 4.977000 -0.087430 -0.372503 -0.923903
39.523000 16.070000 4.000800 0.153136 -0.009918 -0.988155
27.549000 48.585000 -12.975500 0.317115 0.359223 -0.877723
19.080000 51.108000 -15.000900 0.580664 0.485771 -0.653343
12.374000 50.171000 -21.353300 0.060561 0.336589 -0.939702
31.410000 30.434000 -11.034300 0.745939 -0.259942 -0.613193
28.801000 27.422000 -16.958900 0.596833 -0.044880 -0.801110
24.881000 2.939000 -9.789600 0.505357 0.541460 -0.671890
26.102000 -3.991000 -11.331500 0.665364 0.550749 -0.503951
29.399000 -10.096000 -15.943000 -0.450432 0.120645 -0.884622
29.000000 1.327000 -16.114200 -0.534579 0.306277 -0.787667
19.545000 -2.392000 -12.978400 0.395425 0.154936 -0.905336
15.197000 -7.007000 -16.090500 0.474224 0.341557 -0.811450
11.513000 -8.926000 -21.359100 0.476785 0.676434 -0.561349
3.194000 -11.108000 -18.213500 -0.032026 0.655885 -0.754181
9.990000 -10.693000 -27.244900 0.316961 0.941721 -0.112678
13.613000 -14.066000 -30.985700 0.781448 0.615807 -0.100598
6.192000 -10.222000 -22.998600 -0.401357 0.876468 -0.265925
15.723000 -12.386000 -18.771900 0.731073 0.236828 -0.639879
14.082000 -0.830000 -15.677900 0.299179 0.214384 -0.929802
1.859000 -14.211000 -23.038700 -0.058879 0.996737 0.055213
-3.821000 -10.761000 -23.946100 0.150119 0.957398 -0.246683
-9.540000 -9.363000 -21.895700 -0.306819 0.726359 -0.615032
43.585000 21.868000 6.047000 0.837300 -0.395245 -0.377771
42.280000 27.817000 0.843800 0.751349 -0.004068 -0.659892
-3.999000 -10.351000 6.432000 0.944105 -0.159072 0.288725
-3.001000 -9.512000 0.441600 0.985583 -0.102385 0.134699
41.671000 -31.219400 8.805000 0.327122 0.849458 0.414019
42.802000 -45.214100 7.652000 0.954029 -0.096450 0.283770
39.999000 -57.314100 2.183600 0.970570 -0.202374 0.130531
45.261000 -33.886100 18.279000 0.766614 0.405735 -0.497677
42.090000 -43.095400 17.194000 0.920384 -0.354604 -0.164772
43.360000 -51.188900 24.108000 0.932086 -0.317199 0.174930
37.600000 -45.614000 30.999000 0.338204 -0.143564 0.930058
2.545000 -49.435400 -31.020200 -0.004995 0.127169 -0.991869
-0.996000 -55.141100 -32.472300 0.751065 -0.592604 -0.291068
4.709000 -53.841500 -28.059000 -0.309797 -0.866228 0.392015
6.209000 -58.698700 -31.616400 -0.843680 -0.531817 0.073310
-0.084000 -45.684100 -29.791100 0.487235 0.657917 -0.574236
-1.705000 -46.021100 -25.268100 0.277161 0.647894 0.709518
-2.091000 -50.014300 -22.472900 0.166858 0.026898 0.985614
-43.901300 30.017000 -3.225100 -0.946946 0.041899 -0.318651
9.000000 51.761000 -13.339700 -0.923181 0.352541 0.153137
8.449000 43.887000 -14.026700 -0.963420 0.232504 0.133280
7.000000 36.998000 -16.628100 -0.956220 0.031383 -0.290960
7.034000 30.562000 -13.944600 -0.947283 0.139317 -0.288523
5.143000 23.594000 -11.722200 -0.642400 -0.604858 -0.470604
7.010000 31.597000 -20.521500 -0.606139 0.012036 -0.795267
13.334000 29.353000 -19.796900 0.047251 -0.311973 -0.948915
14.176000 23.229000 -17.760400 -0.062017 -0.389794 -0.918812
9.504000 19.141000 -14.715600 -0.356319 -0.921532 -0.154320
-10.197000 -5.527000 -18.004600 -0.151597 0.474518 -0.867093
-6.174000 -2.035000 -15.212100 0.495285 0.577040 -0.649398
-1.389000 -7.063000 -11.667200 0.735007 0.643003 0.215202
-3.001000 -8.361000 -5.734900 0.991984 0.023315 0.124191
-3.002000 -2.868000 -7.121900 0.983129 0.171492 0.063617
3.999000 -2.636000 -9.619200 -0.966480 0.106776 -0.233484
-8.206000 3.129000 -14.177200 0.494380 0.546113 -0.676276
-13.087000 3.905000 -14.659800 -0.194075 0.486129 -0.852064
-16.519000 5.991000 -11.346100 -0.401135 0.587461 -0.702837
-14.811000 9.835000 -8.401400 -0.467835 0.679953 -0.564619
-16.026000 0.057000 -14.448600 -0.368692 0.219018 -0.903381
-20.827000 -4.155000 -13.000900 -0.292112 0.089655 -0.952173
-14.172000 -4.324000 -15.244400 -0.487438 0.146540 -0.860773
-20.554000 4.974000 -8.463400 -0.521988 0.742608 -0.419597
-26.115000 -0.180000 -9.058300 -0.656431 0.419444 -0.627029
-32.000500 -9.319000 -1.680300 -0.997627 -0.057868 -0.037293
-24.598000 4.958000 -4.576300 -0.273553 0.919141 -0.283458
-27.884000 9.988000 1.112100 -0.691865 0.429259 -0.580568
-28.997700 -7.488000 -8.713400 -0.879683 0.469976 0.072668
-22.606000 5.681000 1.952800 -0.093676 0.645237 -0.758218
-30.001200 2.740000 5.295000 -0.939852 0.254973 -0.227303
-40.311900 2.258000 7.024000 0.375644 -0.338767 -0.862629
-21.682000 12.105000 1.038300 -0.354054 -0.443273 -0.823502
-45.091400 -6.841000 7.733000 0.055472 -0.452848 -0.889860
-40.796600 -14.328000 12.973000 -0.068828 -0.296267 -0.952622
-17.055000 11.144000 -4.402400 -0.755821 0.244267 -0.607510
-17.839000 16.380000 -3.979300 0.590435 0.045379 -0.805808
-20.864000 19.213000 -10.032500 0.148287 -0.937881 0.313673
-26.703000 25.062000 -14.957200 -0.860578 -0.174279 -0.478574
-34.061700 40.866000 -13.129100 -0.436687 0.216356 -0.873209
-24.115000 -9.248000 -13.426500 0.249575 0.270324 -0.929859
-30.662400 -12.628000 -17.939900 0.641622 -0.385270 -0.663241
-39.187700 -18.818000 -22.442800 0.470000 -0.438903 -0.765810
-48.637000 -11.360000 -19.174100 -0.679037 0.505527 0.532308
-46.547000 -2.014000 -29.976200 -0.888708 0.282467 -0.361124
-48.884800 -8.663000 -5.527900 -0.010760 0.290990 0.956666
-38.872300 -9.624000 -28.208600 0.467687 -0.555870 -0.687225
-47.255900 -28.010000 -25.478500 -0.103602 -0.218208 -0.970388
-31.086700 -15.110000 10.651000 -0.701470 -0.005708 -0.712676
-19.222000 14.633000 -14.947900 0.166964 -0.985265 -0.037094
-19.046000 19.934000 -21.000100 -0.206735 -0.323394 -0.923405
-41.656400 -18.451000 -2.935800 -0.059397 0.604647 0.794276
-55.891300 -20.894000 -2.321400 nan nan nan
-10.357000 10.917000 -7.466700 0.494442 0.754730 -0.431171
-10.770000 11.062000 -2.307500 0.731203 0.638606 0.239844
-33.763600 -6.331000 -14.177800 -0.596954 0.376505 0.708442
-42.188500 -5.664000 -16.937000 -0.239806 0.560364 0.792771
-35.872200 -1.074000 -20.790400 -0.283531 0.756363 0.589512
-33.145400 5.302000 -27.135500 0.369236 0.656888 0.657390
-36.233800 -1.294000 -38.030200 0.048872 -0.301172 -0.952317
-12.215000 9.614000 1.713600 0.678151 0.517972 0.521360
-14.945000 8.570000 5.399000 0.731632 0.420946 0.536208
-16.432000 5.570000 9.924000 0.924538 0.254528 0.283629
-17.385000 12.156000 7.164000 0.998223 0.054029 0.025116
-17.999000 18.033000 4.830000 0.969330 -0.079574 -0.232524
-14.258000 16.914000 10.645000 0.352596 -0.461056 -0.814312
-18.001000 21.403000 -0.363400 0.939972 -0.341191 -0.006444
-15.450000 29.000000 -1.535100 0.275610 -0.960551 -0.037152
-12.214000 35.857000 9.340000 0.844865 0.396651 0.358986
-7.875000 24.299000 -0.119300 -0.423478 -0.891406 -0.161436
-4.760000 20.231000 -7.576200 -0.162550 -0.961426 -0.221897
-5.397000 34.943000 -1.633700 0.521006 0.852426 -0.043842
-10.549000 38.230000 -12.218800 0.971482 0.184420 0.149039
-9.950000 53.687000 -12.970500 0.569201 0.670914 -0.475274
-22.290000 39.174000 -14.133300 -0.486361 0.055941 -0.871965
-33.532600 31.073000 -10.373900 -0.572379 -0.686850 -0.447906
-33.383600 30.266000 0.238500 -0.141276 -0.834918 -0.531933
-40.075000 21.380000 3.486200 0.051172 -0.444382 -0.894375
-11.000000 37.594000 21.469000 0.947904 -0.151516 -0.280215
-11.605000 47.654000 13.839000 0.944064 -0.193884 -0.266743
-21.000000 51.785000 7.746000 -0.581268 0.778870 0.235560
-20.798000 55.789000 -5.171100 -0.445626 0.886786 -0.122586
-15.757000 7.018000 14.826000 0.466110 -0.325600 -0.822634
-10.291000 10.605000 12.939000 -0.099096 -0.405048 -0.908909
-10.414000 5.422000 15.000000 -0.168810 -0.355327 -0.919373
-9.828000 0.313000 16.413000 -0.227690 -0.176001 -0.957696
-14.322000 -3.744000 17.999000 0.420766 -0.059950 -0.905186
-4.148000 10.756000 10.949000 -0.203604 -0.414031 -0.887200
-2.050000 17.057000 14.125000 0.283296 0.555091 0.782060
-10.844000 20.678000 7.196000 -0.226097 -0.716043 -0.660426
-4.091000 20.039000 5.051000 -0.263318 -0.756697 -0.598393
-2.069000 15.403000 8.028000 -0.163426 -0.539062 -0.826259
-26.724000 49.752000 -12.998800 -0.552123 0.611836 -0.566407
-10.002000 29.618000 29.282000 -0.037266 0.559089 0.828270
-16.326000 -1.618000 12.948000 0.956949 0.175896 0.230886
1.436000 22.011000 11.479000 -0.186225 0.460262 0.868032
-6.000000 23.561000 12.763000 0.485603 0.462566 0.741770
-11.838000 29.281000 14.471000 0.872432 0.335351 0.355532
-11.000000 28.847000 21.901000 0.988557 0.047844 -0.143060
-10.401000 22.756000 25.901000 0.994238 -0.054543 -0.092277
-11.688000 14.659000 25.041000 0.936306 0.189992 0.295355
-8.728000 6.682000 26.917000 0.791250 0.231807 0.565853
-41.359900 36.106000 -9.811800 -0.824831 -0.134431 -0.549165
-36.675600 42.653000 -3.214900 -0.747415 0.660283 -0.073470
-33.055400 41.191000 6.173000 -0.680291 0.580735 0.447158
1.021000 18.719000 5.309000 0.116745 -0.710655 -0.693786
4.407000 21.971000 3.057800 0.425096 -0.845597 -0.322893
5.832000 22.103000 -2.707600 0.466364 -0.884279 0.023551
1.306000 19.895000 -6.328000 0.015154 -0.847418 -0.530710
10.315000 25.886000 -4.299600 0.527801 -0.823029 0.209880
-41.190200 31.255000 6.163000 -0.808578 0.434514 0.396736
8.467000 22.320000 5.093000 0.375010 -0.688125 -0.621170
12.877000 25.143000 4.715000 -0.052790 -0.776426 -0.627994
10.774000 19.706000 8.913000 0.274822 -0.587595 -0.761055
7.926000 14.379000 11.000000 0.349346 -0.471045 -0.809984
15.028000 17.734000 10.928000 -0.428407 -0.469786 -0.771860
17.998000 17.255000 6.058000 -0.987274 0.091100 -0.130351
18.001000 21.845000 3.500200 -0.925694 -0.269139 -0.265811
18.001000 20.904000 -1.608800 -0.826353 -0.131053 -0.547692
12.964000 28.058000 0.282300 0.149323 -0.955104 -0.255888
15.947000 28.596000 -4.117600 -0.235879 -0.949097 0.208750
17.998000 24.434000 -4.672500 -0.870718 -0.473760 0.131917
17.679000 22.630000 -8.802300 -0.494176 -0.699658 0.516013
13.536000 22.122000 -11.988400 -0.136939 -0.665482 0.733745
21.290000 19.762000 -10.907000 0.410033 -0.861419 0.299717
24.843000 18.737000 -7.678200 0.671466 -0.575693 -0.466595
10.003000 24.037000 -8.965400 0.210075 -0.895713 0.391876
22.370000 19.298000 -18.073300 0.560323 -0.410299 -0.719509
23.842000 18.516000 -3.271700 0.042810 -0.945681 -0.322265
27.001000 17.611000 1.748700 0.746147 -0.255312 -0.614883
16.590000 17.050000 1.257700 -0.885036 0.418778 0.203314
12.230000 14.502000 12.816000 0.094075 -0.422052 -0.901677
13.003000 8.175000 15.242000 -0.091284 -0.360498 -0.928283
9.685000 10.623000 13.099000 0.283064 -0.362312 -0.888034
4.948000 10.395000 18.614000 -0.410553 0.444990 0.795883
5.699000 11.019000 12.000000 0.329534 -0.378067 -0.865143
2.123000 6.254000 12.090000 0.303386 -0.294704 -0.906149
1.003000 4.305000 19.000000 -0.376127 0.153299 0.913799
2.587000 -0.105000 14.001000 0.304672 -0.053498 -0.950954
8.183000 -1.286000 16.569000 0.382542 -0.114626 -0.916800
10.738000 -7.173000 18.000000 0.326653 -0.048464 -0.943901
16.978000 -7.259000 17.541000 -0.976665 0.103426 -0.188225
7.111000 8.113000 13.682000 0.309858 -0.330409 -0.891526
9.944000 6.667000 14.949000 0.253901 -0.333735 -0.907830
13.305000 3.335000 17.001000 -0.154570 -0.254173 -0.954727
10.099000 3.476000 15.999000 0.257313 -0.255593 -0.931913
11.408000 0.284000 16.999000 0.223433 -0.217029 -0.950250
10.962000 -3.230000 18.001000 0.228617 -0.103274 -0.968023
8.015000 -5.040000 16.529000 0.451484 0.006810 -0.892253
5.028000 -3.009000 14.999000 0.433411 -0.038148 -0.900388
4.027000 -8.606000 14.552000 0.460962 0.075861 -0.884171
0.910000 -4.508000 12.999000 0.228120 0.448714 -0.864070
7.793000 -8.855000 16.209000 0.473807 0.017193 -0.880461
10.724000 -10.754000 12.029000 -0.222400 0.197400 0.954762
11.979000 -16.784000 11.914000 -0.357037 -0.447125 0.820124
13.980000 -5.255000 17.999000 -0.158140 -0.124835 -0.979494
14.281000 -6.958000 12.999000 -0.626839 0.139016 0.766647
15.044000 -1.669000 11.582000 -0.677234 0.315288 0.664791
11.275000 0.686000 7.887000 -0.489654 0.493583 0.718759
17.000000 -3.679000 16.450000 -0.996493 0.073186 -0.040566
10.396000 -10.885000 17.941000 0.436333 0.028050 -0.899348
11.579000 -16.612000 18.039000 0.349112 0.168013 -0.921896
13.919000 -9.354000 19.001000 -0.362662 0.111968 -0.925170
13.356000 -13.242000 18.999000 -0.223143 -0.065810 -0.972562
15.935000 -16.835000 18.798000 -0.780083 -0.101012 -0.617468
16.420000 -18.551000 13.928000 -0.869812 -0.274218 0.410160
7.501000 1.705000 15.870000 0.372469 -0.183157 -0.909791
4.731000 2.459000 14.151000 0.375368 -0.194638 -0.906209
1.552000 3.003000 13.000000 0.151485 -0.241276 -0.958561
-0.923000 0.305000 13.044000 -0.153864 -0.100202 -0.982998
-4.852000 -0.312000 15.001000 -0.365424 -0.145897 -0.919336
-2.986000 -4.029000 14.472000 -0.426145 0.073214 -0.901688
-4.914000 -8.278000 15.050000 -0.515841 0.033165 -0.856042
-10.011000 -8.606000 17.521000 -0.330264 -0.050302 -0.942547
-6.776000 3.387000 14.999000 0.390275 -0.471560 -0.790770
-6.839000 7.544000 13.002000 -0.229336 -0.391157 -0.891292
6.148000 -0.321000 5.891000 -0.534588 0.588108 0.606914
3.167000 1.751000 -0.185900 -0.855969 0.446156 0.261270
9.023000 -21.103000 14.920000 0.587344 0.316117 -0.745048
18.999000 -22.803000 15.169000 -0.917611 -0.389683 0.078340
13.377000 -27.295000 14.945000 0.540073 0.376366 -0.752775
-0.677000 4.934000 12.058000 -0.117290 -0.283321 -0.951826
-0.748000 8.741000 10.999000 -0.116548 -0.314571 -0.942052
-3.520000 6.668000 12.902000 -0.287859 -0.318591 -0.903126
12.847000 5.231000 6.268000 -0.666092 0.376004 0.644160
11.248000 8.948000 2.315000 -0.726035 0.530675 0.437330
16.097000 8.774000 8.659000 -0.904096 0.178701 0.388170
7.518000 6.747000 -1.154100 -0.736719 0.602797 0.306400
3.993000 -3.648000 -3.375900 -0.994953 -0.045427 -0.089473
16.999000 0.797000 15.057000 -0.973759 -0.034573 -0.224939
16.832000 5.487000 14.754000 -0.915271 -0.126897 -0.382330
-14.204000 13.786000 -1.234400 0.658782 0.715156 0.233577
-16.921000 16.146000 1.119900 0.907712 0.416817 0.048192
-6.980000 30.929000 9.434000 0.554735 0.552840 0.621802
-3.386000 31.720000 3.859900 0.294557 0.806039 0.513358
4.371000 31.759000 4.826000 -0.464565 0.691057 0.553732
1.084000 33.999000 -0.498700 -0.345262 0.927813 -0.141272
-8.204000 36.153000 4.164000 0.661262 0.652919 0.369363
-13.000000 40.994000 4.875000 0.938730 0.285051 0.193734
-12.944000 49.781000 4.864000 0.995935 -0.041416 -0.079983
-13.001000 41.949000 11.230000 0.992297 -0.047981 -0.114212
-11.001000 42.330000 17.242000 0.933019 -0.180496 -0.311281
-17.591000 48.015000 21.387000 -0.617634 0.569790 0.542095
-8.000000 46.831000 27.051000 0.309527 0.706079 0.636903
-9.002000 48.290000 20.292000 0.742425 0.563187 0.362803
-9.001000 54.832000 15.865000 0.933248 0.341506 0.111457
-17.167000 54.425000 16.309000 -0.459375 0.641257 0.614625
-12.929000 36.573000 15.559000 0.991053 0.005309 -0.133360
-20.735000 47.897000 14.372000 -0.831855 0.391737 0.393141
-25.942000 45.033000 8.440000 -0.575595 0.577585 0.578866
-29.795400 40.121000 13.306000 -0.493291 0.612381 0.617781
-27.105000 32.469000 19.017000 -0.428066 0.645797 0.632222
-19.999000 35.536000 24.851000 -0.710406 0.271045 0.649506
-9.002000 42.957000 22.710000 0.951918 -0.157029 -0.263049
-8.000000 37.863000 29.292000 0.982650 0.140021 0.121626
-6.999000 33.244000 38.330000 0.911710 -0.016792 0.410491
-36.565300 27.717000 22.818000 -0.708511 0.408480 0.575462
-35.391500 17.003000 31.028000 -0.787823 0.237211 0.568389
-12.999000 52.099000 -3.594800 0.995316 -0.077549 0.057724
-12.456000 64.976000 -0.529600 0.450252 0.874414 -0.180756
-12.999000 45.982000 -9.569600 0.976717 0.038527 0.211045
-17.935000 50.031000 -16.615800 -0.276020 0.586115 -0.761763
-11.001000 57.404000 2.392700 0.082719 0.938861 0.334213
-9.128000 46.247000 -17.296000 0.874376 0.381374 -0.300034
20.440000 16.677000 -13.926000 -0.300479 -0.953646 0.016462
7.375000 -34.161200 -59.852500 0.799994 0.376195 -0.467426
8.999000 -36.308500 -58.490200 0.943631 0.058346 -0.325818
8.898000 -40.073500 -58.793300 0.915775 -0.336384 -0.219549
-19.823000 -11.423000 43.761000 -0.634589 0.431152 0.641408
-15.919000 -9.611000 51.533000 -0.460222 0.234518 0.856269
-9.298000 38.871000 -0.637900 0.792644 0.608905 0.030812
-10.892000 40.320000 -6.421700 0.905398 0.417315 -0.078125
-8.001000 34.683000 -7.503300 0.812975 0.473338 -0.339149
-8.819000 29.765000 -15.140500 0.935068 0.078002 -0.345780
-3.289000 31.606000 -5.939400 0.412532 0.616358 -0.670761
-5.216000 26.401000 -9.038700 0.750577 0.203618 -0.628629
-7.001000 21.698000 -14.505500 0.719334 -0.585744 -0.373448
-12.177000 24.444000 -18.969500 0.479070 -0.203011 -0.853978
-8.001000 36.846000 -20.936700 0.794065 -0.023980 -0.607360
-12.051000 31.100000 -21.246300 0.284174 -0.184614 -0.940831
-18.311000 35.828000 -20.115900 -0.461382 0.013856 -0.887093
-22.283000 32.165000 -15.458700 -0.617540 0.193734 -0.762306
-27.945000 35.179000 -12.234900 -0.308917 -0.004455 -0.951079
-43.950100 0.432000 -22.400800 -0.662706 0.574801 0.480025
-48.124600 -5.527000 -23.673900 -0.929993 0.350506 0.110715
-46.836500 -9.238000 -29.747500 -0.655738 -0.131585 -0.743433
-42.367100 -5.982000 -35.640800 -0.371902 -0.344738 -0.861884
-43.999000 4.643000 -28.371200 -0.836717 0.542631 0.073862
-39.234100 5.755000 -34.999500 -0.546072 0.383381 -0.744866
-38.823900 3.494000 -24.753200 -0.057884 0.605628 0.793640
-50.034500 -13.214000 -25.437000 -0.892723 0.244982 -0.378193
-54.001900 -20.834000 -18.735500 -0.990836 0.050544 0.125255
-50.220100 -20.692000 -25.193000 -0.403130 -0.286878 -0.869015
-53.966500 -14.673000 -20.566400 -0.940177 0.339631 -0.026780
-49.573800 -16.996000 -17.017700 -0.487887 0.271294 0.829678
-44.000300 -13.868000 -15.067600 -0.797066 0.208224 0.566858
-44.613500 -21.161000 -13.065000 -0.974457 0.171248 0.145284
-48.780800 -23.112000 -6.096600 -0.998636 -0.045107 0.026315
-48.403300 -15.741000 -8.859800 -0.908901 0.416258 -0.025068
-44.000400 -30.129500 -5.807300 -0.991513 -0.027005 -0.127174
-42.089200 -14.849000 -9.060100 0.018642 0.794240 0.607319
-34.266400 -18.349000 -7.941000 -0.318576 0.693163 0.646555
-48.437200 -35.362900 -9.973200 -0.801067 0.172073 0.573308
-47.048700 -44.908800 -3.591600 -0.941964 -0.146387 0.302115
-53.913400 -33.646400 -17.217200 -0.935564 -0.213712 -0.281154
-45.852800 -37.487500 -21.004500 0.061428 -0.376813 -0.924250
-44.309500 -37.632700 -3.785000 -0.997166 -0.010225 0.074532
-49.379600 -22.590000 -15.873100 -0.452633 0.297098 0.840747
-51.667100 -26.890000 -20.519600 -0.800093 -0.143017 -0.582578
-45.708200 -10.151000 -10.529800 -0.505287 0.584008 -0.635310
-49.588800 -32.588900 -21.950800 -0.440445 -0.305608 -0.844164
-43.158700 -31.659600 -21.998900 0.217410 -0.311409 -0.925072
-41.981000 -24.997000 -22.464400 0.325708 -0.012663 -0.945386
-35.803800 -24.077000 -19.997900 0.724255 0.082377 -0.684594
-34.299500 -18.005000 -18.238700 0.679671 -0.335368 -0.652361
-34.988500 -13.327000 -23.364600 0.630968 -0.439125 -0.639569
-29.091200 -17.793000 -14.795200 0.381959 -0.363075 -0.849873
-31.458300 -8.048000 -22.377800 0.678950 -0.472448 -0.561979
-40.411700 -36.039600 -19.001700 0.096807 -0.324891 -0.940784
-34.520100 -36.225500 -20.184100 0.686356 -0.220299 -0.693097
-32.999400 -32.310500 -12.395400 0.924603 -0.074607 -0.373555
-32.001400 -38.829100 -14.340500 0.889822 0.177775 -0.420254
-30.427200 -47.068300 -18.000700 0.686700 0.050616 -0.725176
-30.998600 -36.908600 -8.110500 0.935291 -0.035142 -0.352130
-28.000000 -37.590700 -2.547000 0.803637 -0.355383 -0.477359
-29.999800 -42.878700 -3.721800 0.851127 0.520382 0.069182
-22.810000 -45.646100 -3.225300 0.729099 0.530095 0.432912
-19.872000 -39.538100 -1.295100 -0.716603 0.608370 0.341124
-16.308000 -39.882300 4.782000 -0.821392 0.568313 0.048329
-15.221000 -35.913400 12.335000 -0.361617 0.396562 -0.843784
-25.060000 -37.433300 2.385500 0.803228 -0.508427 -0.310364
-22.889000 -35.303200 9.421000 0.876505 -0.398913 -0.269458
-24.995000 -41.460800 6.669000 0.807039 -0.033778 -0.589531
-25.567000 -48.627700 4.888000 0.303865 0.489493 -0.817351
-29.001900 -48.317800 -0.502000 0.776481 0.565339 0.278333
-24.465000 -33.983600 -1.424100 0.461207 -0.758101 -0.461054
-19.740000 -45.158500 4.320100 -0.689864 0.674192 -0.263729
-34.001100 -27.712000 -15.822100 0.872708 -0.016512 -0.487963
-33.989300 -22.417000 -15.277700 0.700254 -0.199042 -0.685585
-46.926100 -40.610800 3.477900 -0.982491 0.180157 0.047488
-42.749900 -40.833800 -18.099100 0.176358 -0.318087 -0.931514
-40.296800 -45.861700 -15.720000 -0.077958 -0.501507 -0.861634
-46.998900 -48.036200 -13.366000 -0.719465 -0.574664 -0.390041
-35.533900 -49.530900 -15.982400 -0.170234 -0.209600 -0.962854
-36.911700 -58.465300 -16.648500 -0.460224 -0.141832 -0.876400
-28.595600 -65.999100 -17.001800 0.075156 -0.045315 -0.996142
-16.600000 -82.563900 -15.000200 -0.059414 -0.210015 -0.975891
-22.996000 -73.984700 -11.160200 0.291787 0.154585 -0.943909
-11.493000 -78.001600 0.142100 0.895926 0.443981 0.014067
-29.119000 -84.308100 -15.123600 -0.376817 -0.501975 -0.778479
-23.972000 -87.571000 -3.770200 -0.571170 -0.817605 -0.072713
-12.339000 -95.002200 -8.598500 0.057457 -0.880931 -0.469745
-22.947000 -82.534300 7.598000 -0.639697 -0.590827 0.491641
-13.863000 -86.108300 15.167000 0.091501 -0.801797 0.590550
-13.773000 -65.104800 4.260300 0.702346 0.662428 -0.260575
-48.023600 -41.659500 -18.454600 -0.444498 -0.485719 -0.752661
-50.663200 -37.236800 -19.077600 -0.674093 -0.414802 -0.611178
-52.001100 -37.103600 -14.438000 -0.914173 -0.225954 0.336500
-51.343900 -32.134000 -12.906000 -0.666067 0.057004 0.743710
-44.749400 -45.437200 -17.998800 -0.002204 -0.548276 -0.836295
-4.000000 -80.511600 9.856000 0.999432 -0.014517 0.030418
7.653000 -80.091100 19.352000 -0.797886 -0.322514 0.509276
-3.965000 -88.865100 -0.400700 0.871030 -0.451651 0.193180
21.938000 -83.185800 15.020000 0.686548 -0.583671 0.433567
-9.209000 -70.782800 13.198000 0.716517 0.672954 0.183674
-11.210000 -71.073300 -9.902000 0.562071 0.436938 -0.702255
-3.445000 -81.494700 -12.971700 0.869627 0.081417 -0.486950
-54.630100 -28.044000 -15.568900 -0.843046 0.195228 0.501158
-32.782600 -75.912600 6.768000 -0.590401 -0.708838 0.385973
-33.610500 -74.948600 18.477000 -0.115678 -0.928401 0.353116
-46.913700 -55.000600 -5.749600 -0.826936 -0.560486 -0.045084
-37.001300 -57.200800 -8.878500 -0.752380 -0.544642 -0.370526
-41.191200 -59.154800 -2.738700 -0.807941 -0.573911 0.133631
-37.073300 -63.273100 2.620500 -0.962600 -0.200986 0.181678
-37.999000 -71.945600 -0.736600 -0.978756 -0.189771 0.077611
-37.012300 -57.092700 6.479000 -0.909415 -0.201515 0.363806
-37.000800 -49.536100 10.884000 -0.765299 -0.643207 -0.024551
-34.999800 -56.270400 13.747000 -0.969696 -0.200105 -0.140170
-36.001600 -63.469700 19.679000 -0.946786 -0.311305 -0.081764
-23.247000 -62.036500 22.240000 -0.279950 -0.875820 0.393150
-15.821000 -70.793600 22.592000 0.554064 0.199977 0.808098
-35.057700 -69.077800 6.398000 -0.957207 -0.178850 0.227524
-35.137800 -69.551100 13.731000 -0.980067 -0.198039 -0.015803
-35.999500 -72.104200 -9.903900 -0.870371 -0.163851 -0.464335
-43.204800 -46.000000 7.728000 -0.706112 -0.706894 0.041325
-46.960300 -46.008000 16.640000 -0.873387 -0.413965 -0.256569
-48.991600 -42.122700 10.540000 -0.987442 0.147056 0.057735
-35.998900 -63.203900 -11.878400 -0.892961 -0.265213 -0.363707
-44.436700 -33.698800 4.125200 -0.419407 0.443971 0.791825
-36.644900 -35.971400 6.436000 -0.547156 0.770206 0.327723
-47.565800 -27.144000 0.727200 -0.548315 0.456120 0.700932
-32.181600 -28.576000 6.234000 -0.898006 0.412757 -0.152372
-37.081500 -32.307000 14.000000 -0.694609 0.293357 -0.656856
-46.008400 -32.271400 18.322000 -0.830482 0.002971 -0.557037
54.948000 4.872000 14.242000 0.813141 0.451707 -0.367100
-3.078000 -11.574000 13.634000 -0.571866 0.074539 -0.816954
0.069000 -12.175000 11.920000 0.134643 0.109971 -0.984773
3.978000 -12.685000 13.444000 0.302055 0.666465 -0.681606
5.854000 -17.430000 13.334000 0.325967 -0.441177 -0.836127
-2.521000 -15.017000 12.013000 -0.441010 0.193968 -0.876291
-5.762000 -19.081000 13.655000 -0.332487 0.161259 -0.929219
-1.072000 -18.227000 11.001000 -0.189491 0.272728 -0.943246
1.756000 -21.019000 10.465000 0.134640 0.330751 -0.934064
0.934000 -24.945000 8.833000 0.033939 0.596949 -0.801561
5.160000 -28.179000 5.236000 0.163500 0.807392 -0.566910
5.040000 -20.374000 11.574000 0.502609 0.328527 -0.799659
7.316000 -22.916000 12.435000 0.585963 0.472010 -0.658677
8.430000 -26.795000 9.735000 0.538440 0.650298 -0.535906
10.521000 -24.680000 14.010000 0.604062 0.452080 -0.656302
13.251000 -23.850000 16.478000 0.447315 0.356941 -0.820062
16.883000 -26.015000 17.002000 -0.460302 0.279097 -0.842750
16.945000 -31.183100 15.697000 -0.225739 0.098753 -0.969170
11.920000 -20.540000 16.988000 0.461195 0.283982 -0.840627
11.008000 -27.843000 12.164000 0.723486 0.542586 -0.426811
13.768000 -30.987500 12.887000 0.685543 0.480234 -0.547180
13.172000 -32.754000 9.197000 0.776783 0.627186 0.056971
15.725000 -30.991000 5.000000 -0.628452 -0.211921 0.748424
16.008000 -35.520800 7.843000 0.776824 0.577522 0.251025
18.125000 -37.697900 10.643000 0.601340 0.720661 -0.345019
19.805000 -34.989800 14.277000 -0.073850 0.454332 -0.887766
19.200000 -38.883200 6.874000 0.736525 0.674393 0.052201
22.075000 -41.735500 6.370000 0.619706 0.759345 -0.198396
20.869000 -50.038300 4.174100 -0.459805 -0.629027 -0.626821
18.468000 -54.749700 -4.001400 -0.243498 0.399447 0.883827
25.182000 -41.264700 9.041000 -0.354232 0.535105 -0.766930
27.857000 -36.941100 5.895000 -0.882093 -0.223944 -0.414441
24.604000 -37.053500 10.942000 -0.635738 0.191118 -0.747871
26.001000 -33.537100 8.347000 -0.838076 -0.469559 -0.277746
22.325000 -29.895400 7.791000 -0.439082 -0.839404 0.320324
23.022000 -54.814700 10.631000 -0.877763 -0.448351 -0.168860
20.667000 -63.537400 9.124000 -0.603939 0.775450 0.184213
19.325000 -65.241300 -0.174100 -0.330508 0.725606 0.603540
9.553000 -66.771300 0.027300 -0.839667 0.048911 0.540894
13.866000 -76.004300 -1.234300 -0.962521 0.124806 0.240782
8.939000 -82.000400 7.725000 -0.979593 -0.186818 -0.074134
15.236000 -73.095000 -12.100100 -0.223947 0.486547 -0.844464
14.013000 -86.128200 -0.544200 -0.906982 -0.358925 -0.220354
20.259000 -90.641100 -13.842200 0.368270 -0.627858 -0.685691
24.207000 -79.817500 -14.999600 0.276578 -0.314448 -0.908090
19.998000 -68.327800 16.623000 -0.803051 0.558482 0.207862
29.522000 -66.017900 16.468000 0.112259 -0.700261 0.705005
38.098000 -65.159300 11.334000 0.941517 -0.335828 0.027673
12.056000 -72.141500 18.895000 -0.581384 0.428068 0.691918
39.325000 -71.142500 3.444700 0.869576 -0.437829 0.228350
16.272000 -94.895700 -5.389600 -0.480051 -0.860195 -0.172093
32.984000 -77.530100 2.084200 0.675080 -0.639235 0.368300
26.707000 -83.867900 6.374000 0.797310 -0.505234 0.330206
36.409000 -79.046400 -6.471900 0.874898 -0.478250 -0.076357
28.967000 -59.957600 23.013000 0.210439 -0.578772 0.787869
22.085000 -60.353200 32.525000 0.397670 -0.694176 0.599982
38.191000 -59.224800 26.153000 0.514793 -0.365179 0.775650
22.860000 -61.330800 -7.999700 -0.205211 0.083494 -0.975150
18.229000 -52.984700 16.473000 -0.420922 -0.729133 -0.539619
16.043000 -57.956800 22.915000 -0.477202 -0.607001 -0.635475
25.001000 -66.884500 22.989000 0.565988 -0.449109 0.691346
34.165000 -67.539000 24.716000 -0.174104 -0.598654 0.781858
18.260000 -64.679000 24.301000 -0.465286 -0.864544 0.189929
35.613000 -72.063400 17.496000 0.296999 -0.939228 0.172167
25.000000 -75.573700 19.002000 0.787267 -0.309868 0.533096
19.844000 -82.164200 25.121000 0.031384 -0.505056 0.862516
24.385000 -44.935800 4.218300 0.394328 0.565362 -0.724480
27.417000 -50.768000 2.000800 -0.557402 0.306760 -0.771493
28.642000 -46.683500 3.784900 -0.576891 0.376617 -0.724815
30.438000 -42.285400 2.033300 -0.906216 -0.047286 -0.420162
31.999000 -41.323100 -3.253500 -0.982522 0.055837 -0.177576
25.664000 -44.033000 -3.040500 0.286127 0.168447 0.943269
20.906000 -46.273800 0.998700 0.211210 -0.463631 -0.860486
15.870000 -47.670900 3.103100 -0.261773 -0.765465 -0.587825
20.592000 -48.092200 -6.971600 -0.455696 0.884717 -0.098065
26.949000 -38.405700 -6.067500 0.842364 0.277580 -0.461921
23.698000 -35.764000 -10.973600 0.763001 -0.101481 -0.638382
2.782000 -18.253000 11.424000 0.262018 0.321392 -0.909975
19.713000 -39.047500 3.304900 0.819282 0.506720 0.268350
21.577000 -38.635200 0.029800 0.789275 0.533439 0.304120
23.044000 -37.824700 -4.066900 0.510281 0.740545 0.437272
19.969000 -34.340600 -7.095400 -0.668972 0.164221 -0.724919
23.158000 -41.798500 -1.304300 0.846862 -0.356377 0.394740
22.007000 -43.510500 -4.877300 -0.506360 -0.831981 -0.226734
18.802000 -43.000300 -1.706600 -0.165866 -0.781138 -0.601923
15.472000 -39.958600 -3.548800 -0.639088 -0.071281 -0.765823
25.327000 -40.604100 -3.826100 0.781921 0.211099 0.586546
26.957000 -43.221000 -7.999000 0.027888 0.379183 -0.924901
23.786000 -47.082200 -4.801800 -0.894354 0.270969 0.355960
22.278000 -51.683800 -4.110800 -0.330771 0.268976 0.904567
27.922000 -47.978000 -3.140700 -0.529221 0.346340 0.774580
22.290000 -55.740100 -8.000400 0.001370 -0.022964 -0.999735
28.165000 -57.965500 -9.222800 -0.611387 0.008008 -0.791291
30.002000 -53.556100 -14.465600 -0.624468 -0.006466 -0.781024
38.044000 -52.352200 -14.948700 0.401475 -0.181602 -0.897685
23.729000 -58.417100 -2.869000 -0.489890 0.475384 0.730765
24.301000 -49.462700 -8.122800 -0.114899 0.224632 -0.967646
28.089000 -47.389800 -8.001200 -0.321568 0.082483 -0.943287
31.484000 -44.228600 -8.989500 -0.939127 0.261718 -0.222584
31.415000 -49.813100 -11.161900 -0.879429 0.293003 -0.375171
20.864000 -51.840600 -9.000900 -0.066991 0.208564 -0.975712
17.486000 -58.341100 -7.999700 -0.228686 -0.008737 -0.973461
12.730000 -57.768300 -3.612800 -0.781840 0.607201 0.141542
39.400000 -58.435400 -10.054900 0.896101 -0.259068 -0.360397
12.010000 -39.906700 -0.521200 -0.492994 -0.112348 -0.862749
7.287000 -38.914900 1.353700 -0.389409 -0.472147 -0.790846
3.159000 -40.644300 5.388000 -0.263803 -0.926841 -0.267159
-3.350000 -39.949700 2.569400 0.395295 -0.692340 -0.603662
-8.995000 -44.371400 0.511600 0.649480 -0.403073 -0.644754
-10.841000 -51.000100 5.238000 0.360194 -0.787562 -0.500006
6.534000 -41.323000 10.130000 -0.744200 -0.650737 0.150692
0.843000 -39.135300 10.873000 0.136505 -0.922172 0.361892
-5.236000 -43.868300 17.364000 0.901473 -0.312476 0.299507
7.787000 -47.736800 11.106000 -0.595096 -0.794802 -0.118959
27.726000 -63.793000 -10.416200 -0.545671 0.113071 -0.830336
33.063000 -68.997900 -14.504400 0.267482 -0.113192 -0.956891
10.890000 -43.440000 1.631300 -0.514836 -0.543464 -0.663017
11.512000 -47.008600 4.508000 -0.427162 -0.711642 -0.557762
30.398000 -45.103200 -5.000600 -0.272474 0.824198 0.496443
20.000000 -36.275700 1.623400 0.722179 0.492426 -0.485772
19.641000 -32.790200 2.978100 0.292151 -0.875986 0.383792
22.712000 -31.864200 -0.948900 0.024393 -0.994801 -0.098873
14.538000 -48.453400 6.956000 -0.224960 -0.939941 -0.256717
18.950000 -50.408700 9.066000 -0.588245 -0.774651 -0.232128
10.497000 -49.000800 8.106000 -0.274611 -0.932279 -0.235468
16.001000 -50.912700 -6.870900 -0.740512 0.663906 0.104259
14.945000 -36.351300 -1.243000 -0.093357 0.564061 -0.820438
14.091000 -32.772000 0.937000 0.059454 0.534742 -0.842921
8.973000 -30.361700 1.609800 0.070671 0.649918 -0.756712
17.721000 -60.060100 -2.001700 -0.012909 0.372716 0.927856
12.950000 -62.571400 -0.960400 -0.310347 0.458697 0.832636
9.588000 -64.390800 -4.993000 -0.919598 0.241264 -0.310051
10.730000 -71.224000 -5.150500 -0.995211 -0.040296 -0.089058
14.625000 -67.055400 0.998900 -0.449419 0.302068 0.840701
17.520000 -64.669800 4.884000 -0.738035 0.646112 -0.194535
11.932000 -71.370300 0.029400 -0.699671 -0.291095 0.652475
16.771000 -73.068300 3.053300 -0.953199 0.279805 0.114547
11.990000 -76.848000 5.251000 -0.821079 0.444332 -0.358326
9.001000 -75.673500 12.494000 -0.961912 0.207079 -0.178446
14.394000 -65.196700 10.783000 -0.489571 0.868028 0.082748
22.534000 -62.931400 3.592900 -0.774585 0.631787 -0.029397
8.003000 -68.573400 11.394000 -0.830961 0.556178 0.013026
22.520000 -59.601600 7.067000 -0.988328 0.150211 -0.025385
23.988000 -60.525000 12.251000 -0.982046 0.187577 0.020023
22.000000 -64.083800 15.055000 -0.910844 0.411040 -0.037540
20.634000 -63.766500 19.922000 -0.896407 -0.047202 -0.440711
19.978000 -68.313600 21.547000 -0.970879 0.190122 -0.145763
17.580000 -72.930500 19.452000 -0.449772 0.841147 0.300293
19.469000 -66.817000 12.232000 -0.404309 0.731363 0.549221
15.032000 -69.401100 14.365000 -0.175965 0.772602 0.610019
5.159000 -37.182600 14.850000 -0.692262 -0.519095 0.501312
7.808000 -38.736400 22.152000 -0.716490 -0.287840 0.635445
11.655000 -45.400800 21.093000 -0.846488 -0.152056 0.510232
11.142000 -81.846700 2.278300 -0.918706 0.086374 -0.385382
10.001000 -88.311600 4.806000 -0.825810 -0.557739 -0.083458
14.181000 -87.400100 12.832000 -0.346753 -0.818206 0.458586
22.175000 -55.036200 6.016000 -0.897074 -0.329283 -0.294671
12.947000 -67.297100 -7.000200 -0.382236 0.070801 -0.921349
19.124000 -66.426700 -8.000000 -0.136733 0.114749 -0.983939
13.872000 -71.430600 -8.245000 -0.469934 0.582796 -0.662956
9.776000 -75.810900 -10.330700 -0.785221 0.273369 -0.555606
14.925000 -81.130800 -14.001500 -0.413517 -0.098361 -0.905168
18.459000 -70.925300 -9.368800 -0.149008 0.495275 -0.855862
20.836000 -75.270100 -12.851300 -0.022211 0.419392 -0.907533
26.936000 -75.180900 -12.000600 -0.205842 0.283033 -0.936761
33.618000 -81.054900 -15.325400 0.400155 -0.563378 -0.722829
14.973000 -87.267500 -8.699600 -0.849088 -0.447415 -0.280837
12.924000 -81.223100 -2.973600 -0.928480 -0.303553 0.213965
10.302000 -77.048900 -5.123900 -0.889414 0.006965 0.457050
24.035000 -91.437100 -1.575800 0.693188 -0.720688 0.009958
18.756000 -54.950000 -8.998100 -0.191942 -0.008247 -0.981372
14.825000 -55.040000 -7.240000 -0.893145 0.287843 -0.345598
24.688000 -53.716900 3.000600 -0.651629 0.004597 -0.758524
28.001000 -55.291600 -1.174400 -0.870946 0.358028 0.336555
7.914000 -46.348000 7.646000 -0.769300 -0.483552 -0.417559
7.000000 -44.606400 10.322000 -0.967084 -0.178312 -0.181528
6.997000 -45.576200 13.489000 -0.955702 -0.285742 0.070614
9.001000 -49.492300 15.402000 -0.744147 -0.632344 -0.215377
8.216000 -46.212600 16.924000 -0.774012 -0.433812 0.461208
7.942000 -42.862900 20.080000 -0.712918 -0.416994 0.563794
10.977000 -48.444900 18.663000 -0.926527 0.128752 0.353513
11.114000 -50.317100 24.187000 -0.908979 0.363271 0.204428
12.959000 -53.070500 15.621000 -0.269370 -0.731284 -0.626629
10.718000 -53.859500 29.067000 -0.961667 0.265187 0.069810
11.001000 -51.788900 38.866000 -0.808865 -0.203111 0.551800
10.005000 -59.630700 35.430000 -0.432657 -0.556647 0.709191
12.539000 -56.115900 19.694000 -0.149957 -0.785983 -0.599786
8.001000 -56.539200 22.375000 -0.931123 -0.305531 -0.199150
11.064000 -41.461500 22.641000 -0.706556 -0.357283 0.610841
14.001000 -44.612500 25.883000 -0.990519 0.029169 0.134244
11.975000 -42.154700 31.548000 -0.996903 0.027372 -0.073727
15.002000 -35.524000 37.061000 -0.966350 0.149120 -0.209599
15.445000 -28.122000 31.258000 -0.963699 -0.113442 0.241693
11.064000 -37.756300 24.613000 -0.736915 -0.386741 0.554426
7.858000 -32.142100 25.689000 -0.673358 -0.287905 0.680955
13.039000 -40.569000 27.400000 -0.962968 -0.248692 0.104134
12.000000 -46.788900 35.516000 -0.987861 0.136660 -0.073860
11.677000 -44.894200 43.803000 -0.621421 -0.249578 0.742662
12.443000 -41.045000 37.532000 -0.976892 0.196874 -0.083202
6.004000 -39.472700 18.353000 -0.933049 -0.201453 0.298054
6.001000 -34.756400 19.839000 -0.914921 -0.170364 0.365918
3.485000 -32.274600 16.147000 -0.407490 -0.253301 0.877377
-2.702000 -28.132000 17.001000 0.610325 -0.083375 0.787751
-5.105000 -34.024400 21.834000 0.808830 -0.245370 0.534405
2.457000 -27.207000 17.001000 -0.336396 -0.168385 0.926544
6.000000 -24.965000 19.464000 -0.916439 -0.077295 0.392639
2.017000 -22.336000 18.001000 -0.198914 -0.110399 0.973779
5.999000 -27.055000 23.828000 -0.988177 -0.130803 0.079982
2.546000 -17.625000 18.001000 -0.318170 -0.221865 0.921707
5.002000 -15.261000 22.234000 -0.882481 -0.315262 0.349053
10.560000 -14.988000 28.576000 -0.563276 -0.204749 0.800499
4.999000 -19.611000 25.194000 -0.974466 -0.045918 0.219789
9.397000 -20.060000 28.000000 -0.358391 -0.036381 0.932862
11.689000 -25.298000 28.001000 -0.437438 -0.043044 0.898218
7.250000 -28.356000 27.833000 -0.527411 -0.221639 0.820191
11.835000 -30.264700 28.002000 -0.466958 -0.027589 0.883849
15.033000 -33.088800 30.649000 -0.896880 0.171231 0.407783
15.000000 -31.090800 35.076000 -0.910591 -0.199135 -0.362173
8.790000 -30.984500 41.263000 -0.671926 -0.484236 -0.560385
12.543000 -25.554000 36.006000 -0.801018 -0.106972 -0.589006
8.558000 -21.000000 39.443000 -0.791192 0.037753 -0.610402
5.001000 -21.686000 46.677000 -0.998902 -0.024303 0.040059
12.821000 -31.944400 39.115000 -0.713948 -0.410469 -0.567269
11.797000 -36.212400 44.172000 -0.779125 -0.502564 0.374693
16.697000 -32.748300 47.875000 0.293512 -0.135367 0.946323
22.740000 -33.363100 42.867000 0.513048 -0.074414 0.855128
10.883000 -29.393700 48.998000 0.238982 -0.344344 0.907918
13.727000 -37.063200 32.802000 -0.910684 0.361460 0.200005
27.955000 -33.865000 37.727000 0.769658 -0.357482 0.528992
29.796000 -35.161100 29.792000 0.678357 -0.336425 0.653184
33.734000 -28.796700 36.430000 0.677402 -0.423021 0.601813
30.921000 -20.008000 37.771000 0.646299 -0.119808 0.753621
41.634000 -20.923000 33.716000 0.507603 0.102348 0.855490
50.092000 -29.345500 29.189000 0.850784 -0.202698 0.484851
37.534000 -37.567000 30.019000 0.066151 -0.033245 0.997256
43.033000 -32.067700 31.563000 0.283661 -0.231845 0.930475
41.437000 -12.908000 25.345000 0.660237 0.112988 0.742510
10.815000 -28.243000 38.767000 -0.635686 -0.285471 -0.717224
6.107000 -25.920000 41.074000 -0.844995 -0.098700 -0.525588
5.948000 -29.079600 45.659000 -0.981521 -0.162892 -0.100410
9.929000 -24.501000 38.626000 -0.617409 -0.092245 -0.781215
11.345000 -21.474000 37.092000 -0.676659 -0.004862 -0.736281
10.596000 -15.864000 37.947000 -0.800797 -0.143750 -0.581430
6.857000 -25.901000 49.945000 -0.567626 -0.320982 0.758137
-8.392000 -31.804100 27.984000 0.549963 -0.272969 0.789321
-1.540000 -16.756000 18.826000 0.323592 -0.191019 0.926715
-5.001000 -18.270000 20.779000 0.948820 -0.099513 0.299731
-4.999000 -23.569000 22.173000 0.953190 -0.010655 0.302184
-4.081000 -20.059000 24.746000 0.965177 -0.130977 0.226448
-5.001000 -28.859300 23.913000 0.908453 -0.064724 0.412946
-6.098000 -17.266000 27.664000 0.418499 -0.091601 0.903586
-12.277000 -20.536000 26.999000 0.748751 -0.259372 0.609999
5.717000 -15.106000 27.139000 -0.680821 -0.108182 0.724417
7.896000 -10.806000 28.329000 -0.601889 -0.162740 0.781821
11.809000 -11.049000 31.891000 -0.953972 -0.268500 0.133584
10.001000 -5.160000 31.543000 -0.862356 -0.231124 0.450470
8.221000 -35.409700 23.860000 -0.732244 -0.375373 0.568255
6.158000 -32.846200 22.740000 -0.932780 -0.193525 0.304088
23.998000 -40.364500 41.503000 0.681968 -0.045571 0.729961
25.913000 -47.120800 38.967000 0.791474 -0.211070 0.573602
25.493000 -53.734500 34.853000 0.727475 -0.383253 0.569120
28.373000 -47.320600 32.073000 0.680222 -0.117814 0.723476
20.188000 -45.846000 44.224000 0.314066 -0.222333 0.923001
13.397000 -24.057000 51.136000 0.299299 -0.658845 0.690176
21.856000 -21.057000 50.210000 0.522107 -0.450472 0.724209
13.216000 -19.120000 55.105000 0.206801 -0.141832 0.968048
7.963000 -16.531000 53.008000 -0.624975 -0.037140 0.779761
5.068000 -12.508000 48.380000 -0.992324 0.103820 0.067192
7.999000 -6.557000 49.941000 -0.403097 0.424701 0.810643
13.035000 -15.567000 32.564000 -0.944587 -0.327181 -0.026619
30.078000 -41.650400 29.369000 0.332453 0.116390 0.935910
10.020000 -34.539300 26.532000 -0.722274 -0.416408 0.552200
11.609000 -33.288000 29.001000 -0.596629 0.005413 0.802499
32.636000 -13.194000 43.105000 0.750373 0.446476 0.487441
6.435000 -30.068700 23.966000 -0.957095 -0.142168 0.252501
-5.626000 -12.844000 27.072000 0.730632 0.110314 0.673801
-8.926000 -9.128000 29.000000 0.810690 0.019974 0.585134
-11.000000 -11.707000 35.899000 0.989204 -0.004631 -0.146471
-5.951000 -3.936000 27.412000 0.765986 0.028517 0.642224
-7.294000 -16.488000 41.130000 0.947558 0.046090 -0.316241
-5.999000 -26.602000 43.202000 0.931543 -0.303854 -0.199750
-9.325000 0.938000 28.957000 0.832195 0.116105 0.542192
-11.000000 -0.032000 34.309000 0.997411 0.006640 -0.071608
-9.000000 -1.629000 40.978000 0.982108 0.076154 -0.172231
-8.801000 6.215000 47.583000 0.666105 0.434516 0.606218
-18.229000 8.333000 43.123000 -0.622845 0.327376 0.710555
-9.999000 -5.246000 36.586000 0.962717 -0.002087 -0.270504
-9.000000 14.101000 41.065000 0.674262 0.249574 0.695042
-7.998000 -3.752000 48.936000 0.788008 0.218094 0.575742
-6.999000 -13.321000 47.851000 0.995198 0.071797 0.066536
-7.001000 -20.705000 50.576000 0.920390 -0.146911 0.362353
-12.726000 -20.434000 54.965000 -0.024959 -0.234356 0.971830
-10.999000 5.457000 31.998000 0.995150 0.034705 0.092044
-9.999000 10.739000 35.617000 0.981829 -0.063190 -0.178935
-11.245000 10.853000 29.993000 0.998478 0.048753 -0.025789
-3.794000 -12.612000 20.171000 0.725032 -0.242167 0.644735
14.043000 -19.708000 29.893000 -0.808239 -0.168653 0.564186
14.974000 -23.482000 32.548000 -0.997672 -0.050583 0.045742
-18.385000 18.067000 38.354000 -0.559048 0.451149 0.695650
21.539000 -89.996400 10.648000 0.533524 -0.685777 0.495037
41.209000 -55.206500 -4.254000 0.843140 -0.537367 0.018747
48.976000 -48.610600 -0.576000 0.794425 -0.251160 0.552999
38.999000 -62.733800 -3.456200 0.992429 -0.095294 -0.077486
43.560000 -51.967000 0.926200 0.731193 -0.574526 0.367801
40.211000 -52.183600 7.562000 0.920843 -0.361168 0.146987
37.998000 -58.694700 8.720000 0.985784 -0.047476 0.161173
41.000000 -63.995000 4.799000 0.995009 -0.012217 0.099033
42.001000 -48.958200 13.456000 0.965053 -0.244291 -0.094837
1.175000 -30.842200 1.741200 0.031585 0.530656 -0.846999
27.764000 -19.917000 45.045000 0.643757 -0.544826 0.537347
21.655000 -22.916000 43.482000 0.475126 -0.382528 0.792419
-4.745000 -39.266500 13.362000 0.758326 -0.558997 0.335358
-5.000000 -38.582800 18.793000 0.774348 -0.391060 0.497451
-9.109000 -41.913000 21.278000 0.759996 -0.286164 0.583538
-10.730000 -49.590900 19.148000 0.972216 -0.055954 0.227300
-13.182000 -45.836800 27.095000 0.996925 0.011775 0.077475
-6.999000 -58.826400 20.190000 0.837578 -0.332887 -0.433185
-10.001000 -54.314700 27.453000 0.944666 0.324262 0.049601
-8.977000 -57.690900 36.284000 0.854478 -0.050375 0.517039
-11.111000 -40.938300 32.822000 0.983077 0.182105 0.019917
-12.002000 -43.496000 39.805000 0.890651 -0.141380 0.432149
-21.178000 -41.329200 42.002000 -0.476306 -0.088752 0.874789
-15.865000 -52.207100 42.116000 0.158644 -0.325242 0.932228
-7.016000 -49.752300 12.633000 0.834621 -0.514547 0.196593
-14.641000 -65.999600 35.196000 -0.009080 -0.671281 0.741148
9.781000 -18.413000 16.264000 0.580113 0.239529 -0.778521
9.062000 -15.419000 16.666000 0.542704 0.147846 -0.826809
40.863000 -64.662100 19.715000 0.953332 -0.258942 0.155266
45.899000 -51.668900 -4.238300 0.687659 -0.725739 -0.020697
48.374000 -47.132200 -8.404000 0.655151 -0.683328 -0.322242
48.409000 -43.725800 -14.999900 0.452056 -0.589244 -0.669654
52.556000 -38.013000 -14.970500 0.927886 -0.228623 -0.294548
50.036000 -34.137000 -7.789000 0.733996 0.387271 0.557917
48.543000 -40.107200 -2.359300 0.661087 0.372507 0.651308
53.691000 -46.759000 -4.665600 0.944414 -0.227189 0.237629
43.042000 -40.711600 2.131800 0.888929 0.231271 0.395372
42.348000 -38.247600 8.713000 0.810593 -0.572777 -0.121921
50.532000 -33.867200 5.291000 0.688838 -0.622693 -0.371155
48.733000 -26.466000 -0.855300 0.514025 -0.492789 -0.702095
46.083000 -19.286000 -5.576800 0.710511 -0.212566 -0.670813
40.431000 -21.344000 3.029400 -0.093332 0.620864 0.778342
57.196000 -16.494000 -2.221700 nan nan nan
45.224000 -19.521000 -13.794300 0.800607 0.172077 0.573950
45.228000 -12.954000 -9.825300 0.670513 0.738808 -0.067641
39.690000 -16.415000 -6.939700 -0.035065 0.890614 0.453407
